# .PCD v0.7 - Point Cloud Data file format
VERSION 0.7
FIELDS x y z
SIZE 4 4 4
TYPE F F F
COUNT 1 1 1
WIDTH 1459
HEIGHT 1
VIEWPOINT 0 0 0 1 0 0 0
POINTS 1459
DATA ascii
1.1496043 0.35275969 -0.43309909
0.88591403 0.51295727 -0.83410138
0.93548512 0.59864563 -0.81093317
0.94678539 0.70568788 -0.76202673
1.0030386 0.77034289 -0.75689483
0.93017262 0.87726772 -1.6026907
0.94721007 0.87063932 -1.6046933
1.2868896 0.66682488 -0.24629471
0.96051079 0.8045401 -0.71842808
0.89574391 0.65224749 -0.69149327
0.89303118 0.6541388 -0.69263089
0.87794441 0.74579829 -0.63201648
1.1379466 0.3540782 -0.42050561
1.1565915 0.51279491 -0.2230327
0.81582272 0.55657363 -1.3439395
0.91117883 0.1060376 -0.43076551
0.91310388 0.1045722 -0.42793289
0.88091749 0.1054892 -0.39239189
0.91775107 0.1056406 -0.42639199
1.0378641 1.1652925 -1.2689307
0.9011609 0.1043922 -0.42080709
0.89405262 0.1068396 -0.41635689
0.89138353 0.1054999 -0.40886241
0.98530179 0.57244051 -0.40930501
0.89097828 0.30444229 -0.50652498
0.8297078 0.1709815 -0.51683158
0.94825232 0.59221959 -0.37015349
0.901357 0.55998838 -0.74506521
0.92856652 0.43988311 -1.4249257
1.1259724 0.26112089 -0.45596859
1.0332144 0.96571529 -1.3639046
0.88012582 0.65591741 -1.3794459
1.0320745 1.2652767 -1.2159549
1.0116223 1.073179 -1.312368
1.1479822 0.51655543 -0.2078162
0.91418809 0.68535721 -1.2325836
1.1203612 0.57638317 -0.33650091
1.0024819 1.0697682 -1.3060713
1.1394882 0.3540518 -0.42116281
0.99685907 0.18788721 -0.51504809
1.1104064 0.58098769 -0.32738879
1.117358 0.57927722 -0.3350822
1.0976454 0.58580619 -0.3110123
-1.6992599 0.091994897 0.070454501
1.5227374 0.88739288 0.019062599
1.5312177 0.88854468 -0.0155238
0.1828541 1.1036593 -1.6243874
1.5155548 0.88472623 0.0166087
1.5280843 0.88880569 -0.025447
1.501099 1.1112971 -0.063177899
1.2205745 1.4044117 -0.3513591
1.2149457 0.61705393 -0.25995681
1.5595288 1.2820308 0.028331401
1.4196475 1.0873944 -0.107697
1.3965666 1.088631 -0.057269499
1.3941045 1.1709098 -0.1054128
1.047748 0.96434093 -1.5506132
1.4097042 1.1921707 -0.1003057
0.13187601 1.5666972 -1.4539965
0.96728718 0.69722331 -0.78613812
0.82046652 0.28461441 -0.5146035
0.80439752 0.2818239 -0.49690139
0.78783292 0.27214509 -0.47244501
0.75944978 0.067159899 -0.43777561
0.81417757 0.61081421 -0.36481541
0.72435057 -0.1590222 -0.019628299
-1.0121645 1.5639718 -1.7776254
-1.1662693 0.082404397 -0.1687731
-1.2799503 0.1055873 -0.2515651
-1.6895019 0.136345 -0.069238797
-2.3167136 1.296684 -3.5076776
-2.4630473 1.3439391 -3.5634351
-1.4081075 0.2155463 -0.4895817
-1.5045362 0.2205985 -0.46066219
-1.540339 -0.3653923 -0.3712348
0.95189929 0.78597629 -1.1157515
0.9957751 0.97496188 -1.3542418
1.0198728 1.0699092 -1.312584
-1.4666312 0.21592361 -0.4713307
-1.742442 0.15058801 -0.070129797
0.94350302 0.77039862 -1.4389316
-1.7532498 -0.1144793 -0.2005773
-1.6822462 -0.0303711 -0.50648832
-1.4695538 -0.021833001 -0.57374549
1.1488349 0.61170942 -0.1695371
0.84425843 0.4124192 -1.0599089
1.0270036 1.0518484 -1.232402
0.82851231 0.38683599 -0.99270141
1.1417923 0.61128622 -0.1584058
0.89630878 1.6938051 -2.0914788
1.1480352 0.60751879 -0.1741948
0.81800592 0.41480711 -1.0509619
1.1329658 0.66942608 -0.29152271
1.1549586 0.60907191 -0.18253081
0.88111007 1.0661312 -1.5287949
1.0279 1.0169697 -1.1468568
1.0414881 1.1663398 -1.27299
1.0241001 1.2735858 -1.2133428
1.1089646 0.58707988 -0.1115399
0.90266418 1.6926663 -2.0909717
1.1126969 0.66805881 -0.29096109
1.1147701 0.66695672 -0.29304901
1.0498492 1.2672151 -1.2260455
1.0941224 0.65762049 -0.30229449
1.1131097 0.66726577 -0.29238781
0.93605578 0.1929612 -0.4028801
0.91884083 0.1975033 -0.39001319
0.95936263 1.1600229 -1.5214044
1.119049 0.6683774 -0.2928187
1.1232121 0.66662198 -0.29893139
0.83064407 0.34646779 -0.87349969
0.92733729 0.19677749 -0.39351511
1.1000775 0.6662696 -0.27506539
0.97781211 0.90259087 -0.99792433
1.1311587 0.66232771 -0.30518159
1.1322225 0.66651243 -0.3048093
0.93618917 0.1976694 -0.40168011
1.0712779 1.3553705 -1.1842548
1.022818 0.87909722 -1.37552
0.84448469 0.50537348 -0.80849272
0.95876718 0.95980531 -0.94866341
0.87065941 0.60015321 -0.81978017
0.85409731 0.50957727 -0.81997228
0.83455479 0.26438671 -0.48067421
0.93560141 0.39099669 -0.4938741
0.94633979 0.80156273 -0.71612239
0.89275259 0.70648211 -0.72945112
0.84359962 0.4008221 -0.5502339
0.95175707 0.36713359 -0.56428558
0.87595832 0.3933093 -0.45510209
0.82031512 0.2576994 -0.46277151
0.96433121 0.67389601 -0.33606499
0.8704074 0.39450541 -0.44439709
0.8064695 0.36303619 -0.4450444
0.98313808 0.66537851 -0.37162501
0.98919892 1.051644 -0.75606507
1.0348954 1.1598537 -1.2679148
1.0235066 1.1545686 -1.182394
1.0387771 1.2509527 -1.1455348
1.0412503 1.3617587 -1.1731573
1.0219308 1.2887713 -1.0523219
1.0412372 0.96509749 -1.5444906
0.65869462 1.168606 -1.5321101
0.96798259 1.3046923 -1.2702599
0.44731399 1.9135768 -1.6438346
0.97210878 0.28468689 -0.38859361
0.92342418 0.99598432 -1.5714893
1.0247703 1.1589767 -1.4839473
0.93441433 0.79419619 -0.71221608
1.0115467 0.96591228 -1.5536007
1.0578448 0.96528387 -1.5589472
0.95779479 0.92960739 -0.69405347
0.86999619 0.83377582 -0.57671189
0.87931168 0.83573723 -0.58351189
0.9779014 1.0790187 -0.59172279
0.97801763 1.0834979 -0.59311372
1.0588264 0.96455872 -1.5594662
0.97212571 0.97955787 -0.64141548
1.2873963 1.5019015 -0.4584882
0.95400608 1.1978132 -0.51565373
1.032431 0.96439219 -1.5542564
0.99339092 1.6194329 -1.244092
1.0533521 0.96382689 -1.5534589
0.99221748 1.5217608 -1.3159846
0.49123219 1.7201902 -1.7215147
1.0588899 0.96746027 -1.5612841
-0.88939822 2.1502182 -2.964752
-1.4407099 -0.039681301 -0.2884756
-1.8291662 0.30180761 -0.40078959
-1.7114686 -0.34181651 -0.27362329
0.99219757 1.5183152 -1.3238745
0.82359159 0.37025771 -0.46947211
0.81480449 0.3635042 -0.4546763
0.92307198 0.70260322 -0.76101321
0.91550171 0.398231 -0.48789731
0.98816699 0.78532487 -0.75424522
0.85635012 0.75095212 -0.6135391
0.81559771 0.35404971 -0.44657299
0.92932898 0.90429717 -0.64485627
0.96600151 0.90285027 -0.76502079
0.8882075 0.73540229 -0.63169849
0.9431138 0.67451012 -0.33031669
0.7825579 0.35741681 -0.42046839
0.95001948 0.90589368 -0.66543728
0.68264252 0.33351389 -0.89082408
0.91900361 0.6802758 -0.30673179
0.92842883 0.67340767 -0.31635159
0.94293958 0.67992342 -0.32625419
0.1543041 0.67105007 -1.7749854
0.43622571 1.6922072 -1.7757095
0.4541392 1.6666195 -1.7635336
0.2296095 0.658728 -1.7727542
0.43051931 1.6583641 -1.7587919
0.1410393 0.66320097 -1.7838187
0.1004563 0.66980702 -1.7878598
0.1153565 0.67799902 -1.7804978
-0.4159272 1.9312284 -2.459161
-0.89235443 2.1008701 -2.998441
-0.67920959 1.7809106 -2.1836705
-0.98674232 1.5862873 -1.74591
-1.0901513 1.6328697 -1.7455983
-1.8501054 2.1427739 -3.4281473
-1.4038913 -0.0983233 -0.29534671
-1.8674982 0.1294506 0.00069180003
-1.8274608 1.6650964 -3.5387716
-1.1909094 1.6703461 -1.7456032
-1.7884979 -0.58464378 -0.391496
-2.0560064 -0.062314998 -0.3234306
1.0316328 1.3752469 -1.1678054
1.0381199 1.4691353 -1.1155369
1.0315861 1.4857323 -1.1122762
1.025969 1.2809341 -1.0582869
1.0083722 1.0082192 -1.2142532
1.001254 1.3532897 -1.4104917
1.0475529 1.1638776 -1.2797431
1.0279585 1.2213448 -1.1981541
1.5002564 1.0992383 -0.1108161
1.0044274 1.6116842 -1.2601472
1.0515544 1.3656962 -1.1795164
1.0009208 0.96053779 -1.1179711
0.99483782 1.6082935 -1.2497028
1.4659811 1.1126552 -0.045308899
1.0024232 1.6130174 -1.2588067
1.0416573 1.4741102 -1.121624
1.0113325 1.0275854 -1.0593113
1.4045998 1.0894747 -0.0785283
1.48917 1.1003096 -0.0744984
0.98203278 0.74805719 -1.0212331
1.3915027 1.093081 -0.065308802
0.98478281 1.6169912 -1.2376966
1.0621181 1.5723244 -1.0803989
0.94724149 0.7650162 -0.99426728
0.99303049 0.91766632 -1.0216657
1.3924344 1.2017475 -0.0319415
1.0118301 1.5142361 -0.68011588
1.2402869 0.62769818 -0.32063919
1.3966742 1.2067698 -0.029437
0.79792929 0.96586192 -1.5899003
0.94839418 0.65227687 -0.89337379
0.93365169 0.74986702 -0.69844419
0.88061249 1.8100517 -1.310626
1.1980557 0.93832469 -0.2093893
0.86057079 1.814346 -1.2967297
1.3228984 1.1047012 -0.1156336
1.1253392 0.55861008 -0.40377539
0.87178582 1.8072444 -1.3040441
0.83551258 0.96147639 -1.5928452
1.222254 1.4080665 -0.32942891
0.95818961 0.82250708 -0.82042968
1.1902279 0.93592989 -0.20844489
1.1166276 0.56033552 -0.38888511
0.91023332 0.73563927 -0.68156111
0.95359308 0.92500788 -0.68949968
1.1860464 1.4107089 -0.34618121
1.1902803 1.4114505 -0.34836349
1.2197313 0.88814312 -0.073364802
1.1938748 1.4080223 -0.3488861
0.92979163 0.773009 -0.70631588
1.1837068 0.93553019 -0.1996868
1.2090997 0.88306248 -0.074217997
0.96485752 0.9860236 -0.63074863
1.1841875 0.93348998 -0.1908531
1.2272466 0.62332129 -0.29605979
1.2052599 1.4008555 -0.3570061
1.1187062 0.55505651 -0.3959336
0.15286461 1.2928642 -1.5608618
1.0918424 0.56745768 -0.4035202
1.2336514 0.62832898 -0.30824739
0.1177867 1.5518684 -1.4616452
0.1536984 1.5421438 -1.4765496
0.1004811 1.2992156 -1.5392022
1.3548417 0.88105369 -0.021636801
0.87810302 0.65322042 -0.41599849
1.1797591 0.93576312 -0.1976331
0.1659888 1.7775278 -1.4403424
1.2144387 0.92956519 -0.11848
1.3100617 1.2548498 -0.049407199
1.178833 1.3172766 -0.1643745
-0.3225309 1.9569362 -1.9665734
-0.34539151 1.9678613 -1.965382
1.02399 0.93879688 -0.2495577
1.1967819 0.88109249 -0.0483771
1.1798748 1.3075984 -0.1680402
0.1178334 1.762498 -1.4340265
0.93241858 0.50685561 -0.31450921
1.1042342 1.2768378 -0.113211
0.9375689 0.65811682 -0.88630557
1.0889624 1.2800649 -0.085695498
0.895836 1.0768853 -0.19611759
0.79752272 0.1837199 0.067940101
0.97668773 0.72126198 -1.0383748
0.80758917 0.1876231 0.063065998
-0.95910758 1.7408338 -1.7018325
1.2838091 0.63757652 1.3430839
1.1095688 0.71204042 1.1587321
1.112861 0.70696449 1.1360101
1.0900044 0.70624352 1.2201232
0.98937547 0.60613829 1.3141317
1.0338073 0.4411909 1.6084236
1.0476778 0.4536691 1.521163
0.97716928 0.60534638 1.3251215
1.0395421 0.4395203 1.6748798
1.1180745 0.28148901 2.025794
1.1070497 0.27945209 2.0303116
1.0041685 -0.1334592 2.2209101
0.81103832 0.26048669 2.0157256
1.0656904 0.1211327 2.3904738
0.83549601 0.93427718 -1.7758139
-1.3055992 0.33404061 -0.43351161
1.033766 -0.1060784 2.1015301
0.69280249 0.89657778 -1.796773
-1.2883782 0.1119985 -0.58649641
-1.2982597 0.1098497 -0.57303548
0.83518279 0.27814221 1.9387058
-1.3364172 0.098040998 -0.57101673
0.99240148 0.88028753 -0.70942581
0.92248559 0.91719961 -0.56147838
-1.0816616 1.7505398 -1.6812911
-1.1764429 0.24950241 -0.25727731
-1.6830512 0.27528 -0.33065811
-1.2726007 0.1200676 -0.59532279
-1.3321581 0.098250203 -0.54887778
0.82287419 0.93646473 -1.7592971
1.2104888 0.63326669 -0.35898441
1.1925015 1.4098065 -0.35129541
0.032161999 1.690082 -1.3892982
1.1163375 0.57691389 0.0132548
1.1289744 0.58847213 -0.0113678
1.0828309 0.55286622 -0.3888621
0.98667282 0.49402899 -0.092874102
0.89959443 0.90120149 -1.73295
1.0172157 0.93425941 -0.2401527
1.1788964 0.9359026 -0.1958674
1.1689754 1.1143811 -0.1352253
1.0407354 0.46419299 -0.3250027
0.92461801 0.53059423 -0.63868558
1.2041161 0.87994158 -0.075256601
1.1653051 1.1135561 -0.13858069
0.72435302 1.766024 -1.295853
0.99072742 0.44175431 -0.27698421
1.1721082 1.1028783 -0.1578774
1.0218751 0.93476248 -0.2500152
0.57972831 1.8711388 -1.5113752
0.99923933 0.49225 -0.3966006
1.0152076 0.93617839 -0.23957901
1.1024446 1.2783891 -0.1069546
0.57833833 1.8692632 -1.5134079
0.4530938 1.9142851 -1.6420413
0.91999441 0.65086359 -0.44561911
0.45121881 1.9176744 -1.6451639
0.87079102 0.60546118 -0.33021551
1.0070146 0.93285382 -0.2285998
0.95186079 1.356111 -0.40488681
1.0067294 0.93347949 -0.23617961
0.1849654 1.2853732 -1.5668405
0.1257145 1.9886848 -1.8864659
0.74000478 0.1477173 0.1564492
0.7674731 0.1485935 0.16001409
0.77225578 0.1545272 0.1476565
0.76792848 0.1546303 0.14076211
0.2098276 1.538401 -1.4888858
0.16957089 1.7773387 -1.4423453
0.1777838 1.7761871 -1.4466449
0.045488399 1.8561233 -1.6237224
-0.95572948 1.7376177 -1.7035609
-0.95191312 1.74043 -1.7042791
-1.0295807 1.745669 -1.6953894
0.87443888 0.72781128 -0.67970312
1.0431377 0.53536081 -0.36908281
1.1755576 0.9097473 -0.21076851
0.72941238 0.8883785 -1.7594844
0.73870921 0.90607542 -1.757399
1.1507499 0.93346542 -0.2190744
0.86283582 0.87967652 -1.8395779
0.62785071 0.87107962 -1.7915459
0.71414322 0.13162149 0.18898781
-1.6344645 1.8763281 -1.6282958
0.706999 0.88014698 -1.7699057
0.64418519 0.1945352 -0.043124601
-0.168676 0.031894799 0.0920965
-0.16931809 0.034210399 0.097448103
-0.14898241 0.044045899 0.058757398
-1.0438386 0.55888122 -0.927598
-2.8547406 0.2482325 -1.3689311
-1.4442861 0.2590082 -0.43691671
-0.34070829 1.5947908 -1.3210503
-0.2538704 1.5696943 -1.3714179
1.2219402 0.88957739 -0.0666425
1.1367381 0.91023481 -0.0095336996
0.9021337 0.65550512 -0.43959641
1.1041268 0.88021982 0.2678467
1.0124302 0.93240291 -0.2438944
1.0085211 0.93282408 -0.2259347
0.90558243 1.0733443 -0.21193551
0.79536247 0.1715797 0.1078206
-1.0600247 1.7643027 -1.6814907
0.16096529 0.2029196 -0.26881781
-1.4774995 -0.3688857 -0.73332208
-2.5293472 0.38106689 -1.3740532
-2.5483363 0.3847194 -1.3629284
-1.5094049 -0.37815851 -0.71217167
-2.974293 0.43788481 -1.7612426
0.076747999 1.2438523 -1.664463
-2.9905753 0.1286086 -2.1652365
0.63032788 1.1405382 -1.6450402
0.49123919 0.94919968 -1.6407769
0.92360461 0.64560878 -0.94802541
1.2145903 0.62905169 -0.368774
1.209541 0.62363231 -0.3384864
1.0368412 0.53616011 -0.33872551
1.0491371 0.53893822 -0.38685429
1.0839179 0.54659069 -0.40292639
1.053761 0.54002738 -0.39451799
0.41884771 0.84188628 -1.8551923
1.1335748 0.93840528 -0.1074257
1.1546 0.93847299 -0.1786575
1.1399029 1.2725488 -0.1727737
1.1311603 1.1254334 -0.13916869
0.82669169 0.88437581 -1.8169671
1.1333368 0.94279069 -0.1248175
0.93514287 0.63842732 -0.3498407
1.1417181 0.93147749 -0.1243633
0.99115682 0.93698353 -0.30809999
0.97631818 0.92964071 -0.27188209
1.1315292 1.1236906 -0.1331064
0.94447583 0.93614513 -0.1498221
0.95575899 0.93835998 -0.16199841
0.86948419 0.88400137 -1.7301403
0.77105832 0.1784476 0.0310154
0.74669492 0.15152819 0.1199309
0.75668192 0.15258349 0.1051878
0.76292509 0.1596155 0.0964531
0.74578148 0.1401559 0.1656432
0.60412753 0.92748171 -1.8112525
0.86449981 0.91656518 -1.7666414
-0.38777679 -0.071485497 0.43496439
-1.4111476 0.4831236 -0.7272377
0.78332072 0.90475422 -1.787509
-1.3591788 -0.1689346 -0.69586408
-1.4334068 0.25677621 -0.42775089
-2.8864701 -0.3345845 -2.1469827
-2.8553326 -0.33428821 -2.1564929
0.71737611 0.89887989 -1.801726
-3.1036794 -0.38600489 -2.1125989
-3.0914207 -0.38936561 -2.1172419
-2.9933994 0.34942341 -1.8367481
-3.0424094 -0.40514529 -1.9284474
-2.5011733 0.139835 -1.8771365
0.7272445 1.0335599 -1.7365513
-1.7806205 -0.75529188 -0.77100831
-3.3438776 1.2266678 -1.226896
-1.8543084 -0.80252868 -0.71244919
-1.7632935 -0.60949397 -0.61143059
-1.4873379 -0.2204549 -0.0628938
-2.9273882 -0.3763167 -1.9495466
-2.9768133 0.35720199 -1.8213691
-1.8301475 -0.78428757 -0.74108648
-1.7428929 -0.52861023 -0.66431051
-2.8801944 0.0016612 -1.8228741
-2.7625697 0.0138199 -1.8447021
-2.8534267 -7.5000004e-05 -1.830572
-3.0534742 0.31459969 -1.7022918
-2.8489282 0.2381953 -1.353178
-3.0387607 0.3260588 -1.6952536
-1.819761 -0.78218508 -0.73305827
1.0392275 0.52387619 -0.4943935
1.0152899 0.52248919 -0.56903481
0.50861061 0.54330897 -0.9034282
1.2530648 1.0944728 -0.38398299
1.0356027 0.5113678 -0.42382431
1.2615492 1.1147316 -0.20419011
1.0995822 0.90933019 -0.55509388
1.1144959 0.9292264 -0.27105099
0.93756312 0.91533709 -0.4172875
1.1098825 0.92451918 -0.2572394
1.098555 1.1189286 -0.22962829
1.1036998 0.92598212 -0.30023819
1.1041757 0.9255023 -0.27639651
0.90356272 0.62042493 -0.4764446
0.93253261 0.91563588 -0.33800939
0.92351502 0.91990882 -0.3204419
1.1074314 0.92910129 -0.2740694
0.92587531 0.92825848 -0.28682351
0.92151308 0.9217239 -0.28953111
0.91454518 0.92343569 -0.2440106
0.92664027 0.92470342 -0.32570609
1.2230779 0.82093757 -0.044993099
0.73091638 0.17112529 -0.1184777
0.7142055 0.1455767 0.065005302
-0.2024262 0.0227041 0.081062503
-0.19584151 0.0246611 0.063690998
-0.1023583 0.075253502 -0.13108569
-0.285027 -0.0175974 0.2192914
-0.17642359 0.035834901 0.0154367
-0.1550007 0.048082199 -0.031453799
-1.5821419 0.46240789 -0.58909112
-1.6995901 0.53429538 -0.347812
-1.2998593 0.28927419 -0.50617838
0.54394919 0.86184353 -1.80813
0.82745481 0.82908207 -1.7569479
0.82737589 0.8292321 -1.7605695
0.6661495 0.79949248 -1.8444176
0.49324009 0.79003757 -1.8629843
0.49794611 0.79069531 -1.8742526
0.65864062 0.77122539 -1.7702851
0.5400247 1.0430636 -1.7688903
0.56687468 0.77573878 -1.7897042
0.3062436 0.82544452 -1.8774773
0.53444183 0.74467432 -1.6740949
0.1069274 0.97825211 -1.8224684
0.089565702 1.0679463 -1.7873964
0.073673204 1.0696443 -1.7769836
-1.333086 0.56908423 -0.58082461
0.58580518 0.81452709 -1.8067847
0.084567003 1.17364 -1.7388071
0.070856698 1.1869651 -1.7045301
0.0155479 1.1638143 -1.6858625
0.1125755 1.1456236 -1.7941829
0.5516265 0.94132477 -1.7908429
0.67045557 0.84494352 -1.7930081
0.54327053 0.86084503 -1.808881
0.55036497 0.94318622 -1.7919232
0.54097241 1.0228617 -1.7716898
0.49672541 1.0755124 -1.7725149
0.41813731 0.85180688 -1.7819955
0.48716199 1.0809206 -1.7635744
-1.5920874 0.0111247 -0.097716801
-1.6278515 -0.034214601 -0.4539234
-1.6116722 -0.023846401 -0.46094
-1.3569167 0.15686551 -0.19670971
-1.2182933 0.4328669 -0.51666391
-1.9654366 -1.0585339 -0.78531629
-1.9489592 -1.0542228 -0.80027258
-1.8685472 -0.92666388 -0.96434569
-1.5102417 0.31558999 0.0407748
-1.0124805 0.45849451 -0.50815612
-1.4250253 0.25555521 -0.46062309
-1.498703 -0.34796351 -0.3904829
-1.3902907 -0.086142503 -0.33580041
-1.1993994 0.29808861 -0.71208823
-1.4043058 0.26919559 -0.4084602
-1.8415592 -0.80512202 -0.70564228
-3.0316207 1.1771007 -1.2836326
-3.133826 0.298473 -1.6538296
-2.8546219 1.1579114 -1.3393774
-1.7146242 -0.60798132 -0.66662741
-2.1395562 1.0253049 -0.67055112
-3.0566387 0.2033897 -1.2683271
-2.9623368 0.2097234 -1.3037862
-1.8284062 -0.64549547 -0.58073902
-2.8019688 0.90202957 -1.0614359
-2.7970719 1.0711697 -1.048277
0.50376892 0.83279443 -1.8293542
1.1361706 -0.78641999 2.3468988
0.037661299 1.0381795 -1.7851558
-0.361119 1.5335325 -1.4070368
-0.63961142 1.5969547 -1.5889901
-1.0626478 1.6312534 -1.8493571
-1.1332475 1.6665903 -1.843134
-0.48434681 1.5046793 -1.517187
-0.58066839 1.5517328 -1.4454309
-1.1892298 0.215617 -0.40940171
-1.11893 0.47025281 -0.61632478
-1.4842029 0.0016741999 -0.58537942
-2.8663712 1.1631969 -1.3291987
-1.1234891 0.2278057 -0.48336881
-3.0450735 0.050128601 -1.7216215
-1.5245768 -0.14129271 -0.2010695
-1.3134042 0.065432303 -0.65361923
-1.9021157 -1.0249023 -0.82000798
-1.5897555 -0.78805912 -0.61877489
-2.9073634 0.63541192 -1.1066668
-1.6829381 0.42934191 -0.66346699
-2.7460411 0.79986042 -1.1261504
-2.7861292 1.0717518 -1.0567241
1.2136925 -0.86016113 1.9780823
1.1235763 -0.75904918 2.2314286
0.6120441 -2.2246296 1.6544389
0.6425643 0.75048459 -1.7119817
-2.6614544 0.97466242 -0.83011061
0.53098673 0.79847258 -1.64597
0.91700602 0.82381368 -1.7419691
0.6643911 0.62870878 -1.1462067
-1.2112635 0.58782262 -0.89215678
-1.1702106 0.1023097 -0.81129479
-1.9455218 -1.0522081 -0.80938041
-2.818253 1.0868543 -1.1088955
1.1196628 -0.5038029 1.5151573
0.62841779 0.7872625 -1.918093
-0.57346523 1.5598408 -1.6087991
-0.57339501 1.5817497 -1.6361372
-0.55198801 1.5477438 -1.620742
-0.28616881 1.4952247 -1.4378166
-1.0884699 1.6455766 -1.8413409
-0.25462431 1.4617686 -1.3779083
0.47576499 0.77917922 -1.8847612
-1.0356016 1.6143804 -1.8479623
-0.49329719 1.5055807 -1.4767854
-0.2981663 1.5004218 -1.423659
-0.4919804 1.4993953 -1.4733609
-1.2917233 1.5688844 -1.8454396
-0.1115278 0.0220556 -0.0589283
-1.1358879 1.1124423 -0.68684107
-0.067831002 0.066229701 -0.2067863
-3.1545706 0.027396601 -1.7005286
-3.0432158 0.048142001 -1.7324952
-3.0716364 0.3052116 -1.667208
-1.3350602 -0.088467903 -0.36722219
-1.3171535 -0.086971998 -0.38852361
-2.9272707 0.70302367 -0.99501193
-2.6965516 0.9510448 -0.72285342
-3.0162435 0.64166772 -1.0618534
1.1205148 -0.6367178 1.7640229
0.71762282 0.073059097 -0.031564001
0.71612871 0.088840902 -0.083729997
-1.0377522 1.1036607 -0.83895189
-1.1756791 1.1415669 -0.67375338
-0.89173752 0.95985049 -0.69915158
-1.0306344 1.0978589 -0.84272063
-0.93717712 0.98768133 -0.61416751
-1.0414394 1.1031399 -0.8342663
-1.0745102 1.1152657 -0.78055418
-1.0469207 1.1060129 -0.83034688
-1.1516472 0.86519319 -0.74627501
-1.2083124 0.87120771 -0.66114807
-0.93977171 0.98732412 -0.59407932
-1.0100888 1.0011103 -0.49100339
-0.95148718 0.98766631 -0.5822925
-1.0286292 0.3824555 -0.56372929
-1.2121348 0.7047804 0.094310597
-2.7220159 1.1680232 -1.3943727
-1.1423351 0.235826 -0.5358066
0.47629249 1.0500927 -1.7444758
-1.5485611 -0.54828417 -0.58731532
0.7309382 0.82904232 -1.8476104
0.45598981 0.7266683 -1.7166854
0.1353365 0.9615857 -1.8582792
-1.0576454 0.83256477 -0.87549198
-1.0338262 1.6299707 -1.871429
-0.22689611 1.4368134 -1.4108231
-1.0595889 1.6335027 -1.8577136
-2.8535383 1.1681851 -1.3683995
-2.310883 0.90738541 -0.94712102
0.25995779 0.3814795 -0.91578662
0.25737271 0.382395 -0.87980181
1.104528 0.37737691 -0.50307328
0.1006004 0.31316641 -0.75053561
-1.2327876 0.73661917 -0.77683097
-0.71041602 1.1347728 -0.74660039
-1.2424641 0.67979968 -0.78839111
-1.1486592 0.89853859 -0.734281
-1.2264961 0.78937799 -0.75720167
0.11045 0.62998688 -1.5948309
-1.24918 0.56770551 -0.76476842
0.25647181 0.68307942 -1.6385436
-1.7395864 -0.72207838 -0.89711678
-1.7551309 -0.72934312 -0.88012427
-1.5362775 -0.66549128 -0.92711532
-1.3110512 0.2179222 -0.62719578
-0.9331665 0.98636222 -0.59051812
-1.1600716 0.5334869 -0.60044062
-1.1397599 0.50689417 -0.63616657
-1.0909941 0.76795202 -0.48149189
-1.012189 1.0006613 -0.4957028
0.56412649 0.73668659 -1.6955543
-1.7106405 -0.85479861 -0.61971623
-1.5588651 -0.57876629 -0.58746058
-1.5850852 -0.58940768 -0.57192022
-1.6195115 -0.60441738 -0.55744839
-0.1012021 0.046137702 -0.1724101
-0.99255079 0.66405588 -0.3023271
-0.093209602 0.070383802 -0.27277961
-1.47893 -0.26804569 -0.28840899
-1.1334773 0.173152 -0.3920511
-1.0406823 0.92840153 0.062223401
-1.0063651 0.7111342 -0.28222081
-1.2295454 -0.0450412 -0.52725983
-0.49198851 0.2585091 0.79949689
-1.0627784 0.39255121 -0.17872781
-0.694116 0.56522012 -0.70246959
-1.1332579 0.36723301 -0.1017802
-1.0019864 0.90219933 -0.032431498
0.66760528 0.80072409 -1.8550285
0.1189505 0.79708338 -1.9207077
-2.8732748 0.80957872 -1.0491511
-0.89959961 0.6114555 -0.146827
-0.96275449 0.59784693 -0.061943699
-1.3963268 -0.1933441 -0.28826401
-1.9328439 1.0255696 -0.87729788
-2.2754068 0.58671403 -1.1099383
0.19882891 0.70833957 -1.7115086
1.0484771 -0.79609841 2.1544552
1.0698454 -0.7940805 2.1584589
0.35200471 0.71017671 -1.702855
0.2042568 0.70689678 -1.7260464
-0.98930299 0.7441439 -0.64773607
-1.4396483 -0.032718401 -0.87930733
-1.0404415 0.7489872 -0.56453657
0.1024793 0.87820178 -1.886102
0.2096912 0.74643368 -1.8101301
0.41260931 0.66093838 -1.5858512
0.1390035 0.74850839 -1.8382766
0.1273344 0.70990509 -1.7731625
0.2874766 0.63335061 -1.5224333
0.50904667 0.64107162 -1.4792818
0.52179712 0.73575407 -1.6985232
0.4207294 0.66596198 -1.5706697
0.2330692 0.38681531 -0.93199748
0.71244401 0.076085299 -0.079801798
0.72335708 0.080240801 -0.064450197
-0.083302699 0.081496403 -0.3156181
-1.1616246 0.86596727 -0.72628409
-1.037447 0.80148327 -0.79763049
-1.0995418 0.63446552 0.26878291
-1.0295346 0.6749137 -0.20577469
-0.88311547 0.6195398 -0.16450021
-1.0265108 0.60045791 0.0263074
0.32030591 0.61088258 -1.4807068
0.37867349 0.57261282 -1.34331
0.27338499 0.44736961 -1.0777123
0.1562914 0.37808999 -0.93945938
0.1032481 0.50077558 -1.233552
-1.2488066 0.573861 -0.76715517
0.0863337 0.59878361 -1.5466896
-1.2852722 0.51492631 -0.73647648
-1.7204056 -0.4582147 -0.86623299
-0.95385998 0.99500221 -0.57489848
-1.2781318 0.57445759 -0.65471739
-1.1952107 0.58550912 -0.78779238
-1.5954143 -0.59267908 -0.51883382
-1.6344702 -0.62974912 -0.55093831
0.140019 0.56707382 -1.4054351
-1.2865866 -0.052991901 -0.5002358
-1.348483 -0.071381196 -0.42273659
-1.3720628 -0.072078198 -0.40917501
-1.209558 0.1660471 -0.26506209
-1.1736585 0.16749939 -0.32332999
-1.0733043 0.38099411 -0.2411166
-1.162603 0.26637799 0.022810601
-2.3623796 0.28120849 -0.314504
-2.2877097 -0.93297023 -0.0391424
-2.2907233 0.67487073 0.032683201
-2.3312871 0.0485752 -0.019697201
-2.1307616 -0.57706219 0.019436
2.1928129 -1.6265793 1.6363721
-1.0840616 0.41988501 0.85491389
1.94775 -0.089979202 1.900749
1.9721498 -1.1647562 1.3964428
-1.2674594 0.46167541 -0.4871392
0.1634513 0.73355663 -1.7732041
-1.2027193 0.46067801 -0.58857328
-0.87660408 0.88114029 -0.2489541
-1.1244011 0.42331311 -0.368027
-0.95714068 0.90025508 -0.090774499
-1.4445896 -0.2321299 -0.27372611
-1.5878807 -0.27876869 -0.083352797
-1.1879597 0.1632892 -0.29733011
-0.79530621 0.78173143 -0.076945603
-0.85789323 0.80836672 0.099468596
-1.6083941 0.1969444 0.85769278
-1.4784573 0.2183492 0.6083079
-2.4434848 0.0226836 0.086044602
-2.6952963 0.64483148 -0.13957509
-2.6875868 0.55625951 -0.067548603
-2.4833846 0.27580991 -0.1966932
-2.5192142 0.0194108 0.1874696
-2.6867502 0.2235717 0.3827557
2.0896611 -1.2854476 1.6862379
2.188952 -1.6059802 1.6113062
-2.6127596 0.27080011 -0.1043267
1.1061267 -0.82783967 1.6637024
-2.7345409 0.56836808 -0.042434599
-2.3839071 0.046942402 0.041722398
-1.9183384 -1.0277745 0.45280659
-1.9405918 -1.0477803 0.49916041
2.2090325 -1.6376878 1.6678658
2.3346701 -1.7600917 1.8887947
0.0244187 0.43572071 -1.0822867
0.091446497 0.61762261 -1.5672699
0.087810501 0.6032787 -1.5489796
-1.2924513 0.72733492 -0.72734112
-1.152244 0.80743217 -0.60250688
-1.2417588 0.35868561 -0.66335791
-0.32150099 1.0753179 -0.35919541
-1.7103754 -0.85429728 -0.62953198
-1.4526335 -0.127748 -0.38152349
-1.0349429 0.1462277 -0.64166957
0.043206099 0.52966827 -1.4918902
0.095048301 0.61489749 -1.5618985
-1.1236953 0.37963581 -0.1906731
0.156294 0.61367548 -1.5026749
0.0832358 0.60367662 -1.4977107
0.22553881 0.58973169 -1.4284186
0.078977197 0.59707022 -1.4917555
0.47508749 0.53638798 -1.2200245
0.46993089 0.53559011 -1.2392642
0.59731531 0.50745451 -1.110184
0.59548658 0.50452799 -1.1189876
0.29958841 0.49909061 -1.1908575
0.037003901 0.46806449 -1.1586059
1.1081703 0.4551028 -0.54255903
-1.2013917 0.73972738 -0.81330907
-1.1535207 0.86989468 -0.74345642
-1.6047804 -0.46264061 -0.84654438
-1.6650323 -0.47694781 -0.86423749
-1.3911362 0.31340361 -0.69900501
-0.31773761 1.0592278 -0.3871735
-0.94558728 0.99908268 -0.55681688
-0.96627682 1.0414829 -0.48871669
-0.312906 1.0617182 -0.40839151
-1.0656717 0.75782591 -0.52908927
-1.0217859 0.75276512 -0.59234601
-1.0626067 0.75879252 -0.53905642
-1.679377 -0.83233511 -0.64706922
0.72838992 0.086409204 -0.12971009
-1.2357818 0.1749119 -0.33531111
0.088813297 0.60043973 -1.5834731
-0.90654337 0.90060818 -0.20500199
-0.93465519 0.59851933 -0.14305919
-0.9625181 0.59835821 -0.070873097
-0.8204897 0.79768682 0.012179
-0.80106288 0.79170662 -0.043220099
-2.3520651 -0.96982467 0.027845999
-2.3544192 -0.96747422 0.033367801
-2.7237775 0.57553142 -0.0494886
-0.91395187 0.36835989 1.0032229
-0.92449468 0.37711951 1.0949206
-0.89904213 0.34777001 1.1742208
0.031666599 0.53057432 -1.5185361
0.0346913 0.53198391 -1.5374519
-1.3170928 0.55569279 -0.58999938
-1.3283132 0.27037871 -0.63770437
-1.2428215 0.48025939 -0.56045359
-1.3032513 0.47172531 -0.4579159
0.086240098 0.59202749 -1.5468742
-1.180652 0.82634532 -0.4837589
0.018664001 0.51751232 -1.5658889
0.040094201 0.55495793 -1.6129788
0.024898499 0.52733791 -1.5456051
0.0156532 0.49491131 -1.4512386
-1.3885324 -0.081831798 -0.42663369
-1.412619 -0.092652701 -0.38321179
-1.3067005 0.158088 -0.29162049
-1.3152224 0.1563032 -0.27513099
-1.310438 0.1581707 -0.28593889
-1.2960492 0.36896259 -0.071257599
-1.2036917 0.4135114 -0.18587659
-1.1233855 0.66148692 -0.094744503
-1.291334 0.37513039 0.0747573
-1.0675092 0.65204281 -0.22201531
0.065522403 0.55346721 -1.5227959
-1.2287617 0.36342981 -0.0392249
-1.1335701 0.66779912 -0.081967004
0.038753599 0.52591699 -1.465574
-1.2762311 0.14352711 -0.2497469
-1.293547 0.1438721 -0.2095598
-1.1105411 0.7054916 -0.14213941
-1.3101482 0.1359046 -0.17995369
-1.1984199 0.4066686 -0.30732161
-1.258342 0.362367 0.021131899
-0.99902958 0.89875537 -0.052220698
-0.1568158 0.041336 -0.20386779
-1.210429 0.35635501 -0.040436901
-1.0748684 0.52122098 0.0169873
-1.1122034 0.62568671 0.026146799
-0.16251969 -0.022024401 0.1476237
-0.1656148 -0.0015512001 -0.0182829
-1.0944343 0.59508759 0.1110516
-1.0819875 0.58416849 0.1034901
-1.1234136 0.62179798 0.068044201
-1.0527785 0.58011389 0.031931099
0.0085123004 0.49261919 -1.441409
0.0264825 0.50328821 -1.4398108
0.018551501 0.49220589 -1.4084595
0.0346292 0.52240068 -1.4997933
0.019334299 0.4940494 -1.4009904
0.1119037 0.54061472 -1.5877312
0.020896601 0.51389271 -1.5140864
0.018747199 0.50830621 -1.4589226
0.023992701 0.53471363 -1.5560838
-0.0055140001 0.44264871 -1.3033948
0.0011167 0.44646171 -1.2233534
0.0052076001 0.44034949 -1.1744689
-0.0104723 0.40149441 -1.1493883
0.35302141 0.53517407 -1.4758449
-0.0281881 0.3701998 -1.0720279
0.18315759 0.52752012 -1.5086691
0.0257973 0.54631537 -1.6181192
0.0210393 0.52828342 -1.5468374
0.062556997 0.53067172 -1.5670366
0.2361327 0.55469543 -1.6110464
0.32827419 0.52048671 -1.5097351
0.0246833 0.52970833 -1.5455426
0.039983701 0.55300671 -1.614623
-1.2808943 0.50942552 -0.46650749
-1.3166661 0.4823713 -0.43937549
0.021439901 0.52201241 -1.5180085
0.0190253 0.52123249 -1.5191131
-1.2434497 0.78160143 -0.24198849
-1.2052164 0.76072812 -0.31508261
-1.3017365 0.14369629 -0.228508
-1.2311505 0.41873109 -0.1225244
0.1323501 0.57254702 -1.5287988
0.053188801 0.55801648 -1.553514
0.0660538 0.56020957 -1.5216544
0.077638596 0.57933909 -1.4737108
0.076575302 0.57858449 -1.4771397
0.059415001 0.5412991 -1.3976032
0.0307566 0.4838559 -1.3072071
0.038659301 0.55194688 -1.6151119
0.0002271 0.43704489 -1.2357024
0.021264801 0.40915799 -0.9660508
0.0045635998 0.40582049 -1.0490149
-0.00041519999 0.40524739 -1.0522757
-0.0249954 0.37204289 -1.0247226
-0.023668 0.36913341 -1.0095108
-2.3631542 0.68476123 0.1027209
-2.4094937 0.40958571 0.2625522
-0.93603939 0.3842116 1.1344994
-2.002533 -1.4563916 0.84588528
0.1832235 0.26331261 -0.83410507
0.47543871 0.38304299 -1.0869291
0.34792101 0.27905199 -0.85586131
0.3576408 0.32697669 -0.97093791
0.4730964 0.38188249 -1.0869604
0.2734651 0.188058 -0.60404772
0.23931859 0.1777636 -0.59019578
0.3582705 0.3257986 -0.97022438
0.2084596 0.51364517 -1.4602504
0.0254256 0.4848915 -1.3282526
0.069897801 0.50570083 -1.5131199
0.0141735 0.62597787 -1.4827514
0.0198566 0.46529031 -1.3017336
0.1857903 0.47665691 -1.3458506
0.018675899 0.62280542 -1.4829336
0.0236881 0.52211672 -1.5176238
0.0164729 0.63433248 -1.503502
-0.037342399 0.3453002 -0.9264757
0.0191653 0.63458371 -1.502674
0.0246122 0.52986801 -1.5448295
0.030154301 0.51785529 -1.5084487
0.033300899 0.54476488 -1.5920005
-1.2356746 0.42394069 -0.1190262
-1.1886424 0.4025003 -0.22423729
-1.1233704 0.69731683 -0.1209694
0.034171399 0.54338431 -1.5836409
-1.1241235 0.65482002 -0.084274098
-0.1923057 0.57900947 0.0780892
-0.9444201 0.78738987 0.20823491
-0.94126117 0.79956871 0.2332696
-1.007979 0.8243162 0.39286989
-0.94482428 0.79627413 0.2422975
-0.94065249 0.79620391 0.2250686
-1.2126542 0.4223153 0.86719322
-1.0020844 0.36445951 1.0201762
-1.1295066 0.3783929 0.96848392
-1.1569718 0.4210605 0.71482348
-1.1588687 0.40518391 0.716905
-1.1889591 0.3991853 0.8184284
-0.99930757 0.36695939 0.97513258
-1.0517961 0.35199091 1.0733339
-2.0193214 -0.87087017 1.3760377
-0.0067055998 0.45834669 -1.397401
-0.0076449001 0.47410259 -1.3663743
-0.0026676999 0.47072101 -1.4456353
0.022255 0.62768042 -1.483611
0.34604499 0.50344372 -1.4440203
0.00056700001 0.49153829 -1.4465466
0.0015356001 0.4434925 -1.3034441
-0.021520499 0.43546569 -1.2972729
-5.2899999e-05 0.60151142 -1.4189519
0.0053345999 0.63891393 -1.4577897
-0.033788901 0.41815701 -1.2944016
0.0212496 0.52087212 -1.5177571
0.0076065999 0.62238652 -1.4530395
-0.0439547 0.38471279 -1.1647216
0.022251001 0.53439462 -1.5445145
-0.0090367999 0.3538202 -1.1042805
-0.060445599 0.34044871 -1.0527105
-0.0812141 0.30953011 -0.97620147
0.035921801 0.54713267 -1.585391
0.0490412 0.55054063 -1.5867325
0.1250415 0.24567319 -0.85269582
-0.1175435 0.57571429 -0.44738519
-0.1741008 0.1100652 -0.41746429
-0.95741141 0.83768421 -0.1216128
-1.1758968 0.30331069 -0.21832161
-1.0969982 0.68220538 -0.061928999
-1.1579385 0.65643269 -0.1014037
-0.99805272 0.86863321 -0.0828247
-0.95574981 0.88169098 -0.1119714
-1.1111623 0.64698088 0.0156417
-1.1242065 0.54338032 0.1677677
-1.0517612 0.57983619 0.037847199
-1.3411878 0.1678244 0.1867079
-0.29242629 0.87446088 0.55889201
-1.0579065 0.4512465 0.92566061
-1.2723615 0.43671611 1.0553492
-1.0266987 0.3581315 0.92045617
-0.99961072 0.34767711 1.1220497
-0.71037978 0.2016373 1.1250159
-1.0551044 0.3435863 1.0253537
-0.81887728 0.2169973 1.3700845
-0.94179338 0.2912004 1.4549078
-0.85576153 0.22743391 1.6739317
-0.78412437 0.22396161 1.2389417
-0.0015827999 0.47800729 -1.4148874
0.0018158 0.47865209 -1.4120882
-0.0032072 0.48033631 -1.4000183
0.2016467 0.49684381 -1.4623355
0.2046268 0.50053853 -1.4582764
-0.0259578 0.45257419 -1.3590548
-0.018508401 0.59387892 -1.3535049
-0.00064530002 0.58814323 -1.3517092
-4.6999999e-06 0.57985991 -1.3531351
-0.0057135001 0.57300532 -1.3623292
0.057895601 0.4546482 -1.3619354
-0.0066145002 0.4809567 -1.4102328
0.0075011998 0.48580381 -1.4134005
0.067289203 0.4570924 -1.3456101
0.0146586 0.53618687 -1.5442662
-0.025161 0.43218309 -1.3331615
0.1866892 0.46518159 -1.3879615
0.022628 0.52981919 -1.5453241
0.26702711 0.4697113 -1.3730446
-0.029422799 0.4231737 -1.2645046
-0.0292463 0.43135631 -1.2581989
0.2661497 0.47167861 -1.3726628
0.25966659 0.47133929 -1.3765535
-0.035028599 0.41091701 -1.2377008
0.0430783 0.41506439 -1.2518882
-0.0040890002 0.48083019 -1.4093746
-0.039592601 0.53679413 -1.2431026
-0.041870002 0.40437299 -1.2095702
-5.1499999e-05 0.69789511 -1.4591269
0.32346261 0.44822589 -1.3085426
0.4099308 0.44948801 -1.2938073
-0.062386598 0.35515481 -1.0951444
0.0090698004 0.479404 -1.4244597
-0.0588178 0.3575896 -1.0943695
-0.077673703 0.37999681 -1.1020261
-0.059838898 0.48280871 -1.0793217
-0.0002337 0.48072031 -1.4167569
-0.068582296 0.47566471 -1.0662569
-0.0706366 0.4726457 -1.0698606
0.0783609 0.35996261 -1.1035925
-0.071729802 0.46555069 -1.0608412
0.028049899 0.66711217 -1.5908737
-0.077317603 0.3264119 -1.010442
-0.064670898 0.32623419 -1.0070441
-0.064925902 0.32629311 -1.0140779
-0.057435501 0.32664779 -0.9898746
0.1868441 0.33603579 -1.0536563
-0.048971701 0.66162992 -0.97012049
-0.098111399 0.33265069 -0.94598597
-0.061206698 0.65749931 -0.96165878
-0.089455903 0.29820481 -0.94246948
0.1865772 0.34075639 -1.0472059
-0.98874748 0.88650888 -0.054282099
-0.97947901 0.87090403 -0.034522898
-0.3887876 1.1068521 -0.040111601
-1.0216196 0.89870799 -0.0251221
-1.1093323 0.6135208 -0.0213085
-1.0820208 0.6197719 0.13676161
-1.0725441 0.61803752 0.1042211
-0.28837451 0.070881397 0.1541176
-0.2751081 0.79327577 0.33674631
-0.2290505 0.89776611 0.33521029
-0.2260666 0.75106001 0.58111638
-0.2146779 0.55400401 0.2036148
-0.1917568 0.58031178 0.1581568
-1.0750451 0.45797569 0.96161008
-1.0917352 0.39290291 0.8591547
-1.1464577 0.41351381 0.67758143
-1.1965802 0.41497579 0.88104641
-1.1791284 0.40701929 0.77305287
-0.409354 0.28168109 1.4225698
-0.70846611 0.209005 1.1382681
0.36655179 -0.2038527 1.2259051
-0.7746399 0.2262205 2.0911472
-0.8433938 0.25750011 1.7012882
-0.00081200001 0.6009385 -1.4229282
-0.0249728 0.4930993 -1.3663974
-0.025028801 0.44778991 -1.3519598
-0.0020395 0.60049587 -1.394559
-0.0070675998 0.61253703 -1.3852715
-0.0195453 0.45011279 -1.342165
-0.0146314 0.4518016 -1.3380315
-0.016615201 0.45102119 -1.3389508
-0.0147385 0.59534478 -1.3651094
-0.0067845001 0.57807589 -1.3573816
-0.0064087999 0.57693952 -1.3349919
-0.012659 0.57972288 -1.3423268
-0.0198528 0.63205987 -1.3249053
-0.0339134 0.47998801 -1.2855074
-0.037165601 0.42823109 -1.2649255
-0.031171201 0.62653261 -1.3318422
-0.032734901 0.4213081 -1.2467579
-0.036785901 0.42171001 -1.2507919
0.035733201 0.54370528 -1.581971
-0.38547969 1.0250226 -0.1834121
-0.38310689 1.0318975 -0.17844561
-0.98889577 0.88566989 -0.0022133
-1.0530422 0.59147078 0.119291
-0.17504039 0.54900843 0.030972499
-0.2334834 -0.0449371 0.0356833
-0.23617271 -0.042985901 0.0083101997
-0.2207891 0.26957539 0.1721781
-0.2269167 0.27099171 0.1196342
-0.92796731 0.79134238 0.2133716
-0.29202729 0.73541433 0.1481951
-0.22642159 -0.0551739 0.045462798
-0.32158011 0.1185554 -0.090852402
-0.2370531 0.79521447 0.38840291
-0.2337956 0.64391422 0.26219741
-0.25969711 0.77700442 0.162367
-0.2049315 0.57201648 0.2892727
-0.2653642 0.70104182 0.26122579
-1.1421305 0.40980771 1.0718368
-0.9969613 0.34283561 1.103211
-1.0245054 0.37719721 1.2923827
2.7315633 -1.1436458 0.83104259
2.5855405 -0.73419619 0.91820669
2.7043393 -1.1310375 0.80526781
2.7253599 -1.1252382 0.82464349
-0.72672552 0.209012 1.3669208
2.6415973 -1.099614 0.74987388
-0.81244612 0.2546621 1.441839
-0.41534299 0.28650919 1.717362
3.4938276 0.38805929 0.79645097
-0.039566699 0.40670919 -1.2073851
-0.038084202 0.39658129 -1.2085032
-0.0290538 0.41777381 -1.2769268
-0.023566401 0.52803898 -1.2108592
-0.047555 0.56479061 -1.2106166
-0.0455014 0.3873561 -1.1681281
-0.048506401 0.37271291 -1.1293801
0.0012364 0.5921573 -1.3886033
-0.057424199 0.3565219 -1.0907109
-0.0068910001 0.46744001 -1.3807642
-0.066571601 0.47193289 -1.0642329
-0.062819898 0.47269741 -1.0563167
-0.034887601 0.71268761 -1.1095954
-0.0311423 0.71083099 -1.1137607
-0.040560201 0.71174937 -1.1129937
-0.081765898 0.33313581 -1.0093567
-0.0296022 0.71039498 -1.1120903
-0.093157299 0.46041289 -0.98207933
-0.044998299 0.47483021 -1.0723414
-0.055971 0.32645789 -0.99469972
0.1129576 0.38247919 -1.1611249
-0.084953196 0.30915099 -0.98129869
-0.0013230999 0.5306685 -1.5098252
-0.088851802 0.29447761 -0.93163812
-0.092399403 0.36035779 -0.93978357
-0.049784899 0.68581063 -1.0055152
-0.0033769 0.58287281 -1.3640852
-0.065661199 0.65262109 -0.97221208
-0.053376 0.65818882 -0.97563761
-0.078275301 0.27151379 -0.84898192
-0.1189741 0.2394885 -0.7666648
-0.085807897 0.61909533 -0.86161327
-0.1212283 0.36484581 -0.79932392
-0.1237536 0.2378459 -0.77880639
-0.109073 0.21159761 -0.660923
-0.14185341 0.53891259 -0.54462522
-0.1338515 0.54603428 -0.51784247
-0.095625803 0.2939097 -0.9468776
0.16731469 0.30353111 -0.93675202
-0.081074603 0.62594289 -0.85709459
-0.0786587 0.62587559 -0.84894031
0.159918 0.29978251 -0.94460899
-0.076089703 0.63148803 -0.83317721
-0.084222198 0.62235957 -0.86184329
-0.1195025 0.36672771 -0.8013038
0.024188399 0.25730509 -0.85489768
-0.1265251 0.36157691 -0.79378742
-0.1353111 0.2197312 -0.74904883
-0.1199715 0.2134909 -0.70484948
-0.021243401 0.18254399 -0.6309225
-0.0233749 0.181833 -0.62588108
-1.0986243 0.63132852 -0.0119844
-0.3784726 1.0300914 -0.18758731
-0.2179109 0.067214802 -0.31537351
-1.066977 0.59033799 0.1068684
-0.22564 -0.043728098 0.026089801
-0.24799789 -0.036605202 -0.0518259
-0.24020509 0.52146471 0.17394
-0.23823109 0.51757681 0.1678585
-0.2313872 0.54001242 0.2442916
-0.2479776 0.7586326 0.2872912
-0.2182807 0.55267698 0.3084884
-0.26573259 0.6673525 0.26398921
-1.2337571 0.4462167 1.0094206
-1.2689965 0.44501311 1.1524537
-1.0018131 0.38911811 0.99308681
0.056550201 -0.88891429 2.1281581
-0.0499801 0.37492469 -1.1293257
-0.0568619 0.3572354 -1.092132
1.0262393 0.17484631 -0.26004469
-0.088162802 0.2968848 -0.93569177
-0.1034117 0.27207789 -0.86358881
-0.088685498 0.27672511 -0.86212552
-0.1168527 0.2059302 -0.67946339
-0.14011019 0.5376153 -0.54592443
2.6735146 -0.73377669 1.0063335
-0.0453979 0.39500719 -1.2208503
2.7462714 -0.75874531 1.0717998
0.28590199 -0.035980999 -0.33306599
2.0332267 -0.8635776 2.3282247
1.9818815 -0.66283768 2.2612195
2.9026599 -1.3835207 1.9031391
2.8280809 -0.59550011 2.1590097
0.27889919 0.18947481 -0.60803032
0.300488 0.2131898 -0.6718114
0.3011277 0.21330839 -0.67051327
0.2906068 0.17990699 -0.57501489
0.3295781 0.2053377 -0.65028048
0.29214489 0.1565332 -0.51678127
0.28355059 0.1561124 -0.52815253
0.28800109 0.15895049 -0.51920497
0.2916314 0.1587611 -0.51496208
0.47045699 0.20615789 -0.62503529
0.47292089 0.2061293 -0.62263751
0.4710564 0.2057209 -0.62309891
0.37766239 0.33715111 -0.99083912
0.2694118 0.1884637 -0.61006302
0.35595879 0.3247447 -0.97025758
0.3516807 0.2815119 -0.85791802
0.30945629 0.26556161 -0.81557119
0.34009239 0.34194499 -1.0280869
0.21046899 0.26026449 -0.81598449
0.34027219 0.27638131 -0.86463261
2.8052397 -0.85284323 0.9517774
0.27448881 0.186423 -0.60961539
0.32055891 0.23323169 -0.72033942
0.2179652 0.1396683 -0.48722181
0.4945471 0.32658651 -0.96632159
0.3073484 0.17775381 -0.56959027
0.52256483 0.3448396 -0.99823868
0.37215269 0.21322151 -0.64795798
0.39940539 0.2280715 -0.69582129
0.35876241 0.1906655 -0.60169548
0.47076401 0.27093959 -0.80575353
0.4713802 0.27067709 -0.80446303
0.41873091 0.20961811 -0.63613689
0.41396779 0.2059646 -0.64105111
0.4665969 0.2043291 -0.62705427
0.4478845 0.096974596 -0.3380236
0.51429278 0.016232001 -0.1206744
0.30009249 0.1982367 -0.62572533
0.36932659 0.023142001 -0.1462321
1.6189301 -0.37090531 2.3220019
2.049068 -1.0650303 2.2813168
2.7529795 -0.74864888 1.066498
1.8535683 -0.32863531 2.2644436
3.6093884 1.4425298 -0.90092772
2.7296839 -1.3495969 1.7972556
3.658777 1.1200492 0.35334131
0.24342351 0.1803726 -0.58369339
0.26896051 0.18472891 -0.61479092
0.3681623 0.30190799 -0.89571083
0.21654069 0.17223489 -0.58090448
0.36715829 0.30444321 -0.89639747
0.32241669 0.24040809 -0.75833398
0.40313399 0.2304727 -0.69293958
0.29963031 0.1048186 -0.3864066
1.7335372 -0.22376131 2.3123536
2.230515 -0.17323589 2.9802103
4.7944369 1.7772671 0.16340511
2.7541585 0.40510279 1.5467883
3.4293113 1.2049955 -0.28013769
0.2330333 -0.0129508 -0.083794199
0.3778455 0.056997798 -0.2462689
0.37394711 0.027642 -0.1581486
0.4850522 0.1009961 -0.3479211
0.86303228 -0.0023149999 2.2696936
3.9755781 1.1995605 -0.3382988
4.1563792 1.3643087 -0.6434024
0.89979452 0.1603829 -0.36752251
0.91175121 0.16053841 -0.3614881
1.9367585 -1.3732579 1.9142532
0.33986261 0.25421789 -0.7751264
2.206522 -1.0383228 2.5368726
0.2542226 -0.0136026 -0.0592934
1.8558999 -0.33893469 2.2681978
0.2425283 0.1337821 -0.4695034
0.30715811 0.176458 -0.5601747
0.39973029 0.2278292 -0.69595832
0.47373599 0.2725834 -0.80069268
0.45162129 0.24815939 -0.7407313
0.45101461 0.24964631 -0.7412957
0.6023162 0.34075201 -0.96067542
0.3566525 0.126333 -0.4460029
0.42182511 0.1802703 -0.55523342
0.3874481 0.12631311 -0.41974941
0.47788161 0.1727884 -0.54843992
0.55186051 0.2138754 -0.62604588
0.61396718 0.2601482 -0.73311257
0.54638702 0.0969638 -0.3215988
0.4166415 0.061737899 -0.24903961
1.9460127 -1.5265807 1.9812713
1.8301032 -1.4525902 1.790608
2.653348 -1.1109325 0.78267062
3.6258066 1.6397778 -1.1132636
1.8597875 -0.69924062 2.299597
1.6662275 -0.3561466 2.3809965
3.5124598 1.3598233 -0.4874925
3.0670927 1.3205967 -0.88655281
1.9249607 -0.72631007 2.3723674
1.6913968 -0.25213209 1.9519681
3.3147035 1.5003841 -1.0899223
3.3935094 1.536904 -1.0925078
3.2998109 1.4877681 -1.1072477
1.7403227 -0.34821221 2.2914419
3.2149427 1.4591656 -1.0875306
1.7818308 -0.27428991 2.2511504
1.7020149 -0.29606101 2.3627734
3.7549355 1.7059126 -1.1065396
3.5788212 1.4232348 -0.90900153
4.6256895 1.7013842 -0.112895
3.422765 1.5359914 -1.1306846
3.4891336 1.5746456 -1.1021465
1.9849473 -0.67829877 2.3236103
3.5531728 1.5424199 -0.84753603
3.36534 1.2338619 -0.39162111
3.2778654 1.207419 -0.40631789
3.3528368 1.2414086 -0.39720321
3.0727453 0.91661918 0.1986621
0.36109951 0.0450285 -0.2134392
0.2433037 0.0094983 -0.1187868
3.0910594 0.92691988 0.2060349
2.1453862 0.6235888 0.96936232
0.21067099 -0.0039869002 -0.086783297
0.9127475 -0.95496827 2.1760859
0.4997786 0.088391498 -0.30779779
0.91414672 -0.97506708 2.1821048
2.5439088 0.79934919 0.63467062
0.38655639 0.048670199 -0.2178366
2.7421896 0.83199477 0.4717904
1.3363268 0.29566321 1.7052566
0.82341188 -0.2174599 2.1899171
0.33343169 0.0311001 -0.17797869
3.2291148 0.98224169 0.061198901
3.1868601 0.94959879 0.1043096
0.91625911 -0.95733899 2.2062092
0.38692051 0.0491447 -0.2138886
0.92322671 0.1614636 2.0748475
1.9229969 0.52335298 1.2122576
0.54128259 0.093970202 -0.32399899
2.1768148 0.6502561 0.99243689
0.91979808 -0.97022587 2.2255228
0.46856469 0.074450903 -0.28241539
1.7626755 0.45963719 1.3662751
2.1970398 0.62746972 0.99073869
2.9832864 0.97745168 0.30148971
0.26369581 0.0121355 -0.12837981
2.205328 0.6323728 0.99079639
1.7628883 0.46759719 1.3787154
0.24339961 0.0090731001 -0.1138194
0.40135431 0.049107499 -0.2178646
1.8188635 0.50496972 1.336828
1.0207642 0.1583274 2.0402799
0.3857874 0.047273599 -0.2184025
1.7743263 0.47458109 1.3821893
0.38607949 0.045983199 -0.2180811
1.941292 0.53888887 1.2399178
0.2439442 0.0071169999 -0.1181145
1.7815571 0.4779422 1.397199
3.202307 0.83855432 0.1761882
0.21052431 -0.0038158 -0.086502701
2.711055 0.74960673 0.59864521
1.3631834 0.31012279 1.7695278
2.6658585 -0.20442221 1.0545638
0.54563272 0.088699102 -0.29836601
0.226615 -0.021957399 -0.025520399
1.3600489 -0.62955028 2.0204401
1.1663327 0.2288291 1.9514331
0.43435091 0.038817398 -0.18247139
1.1661012 0.2240524 1.9719771
1.2029469 0.22412869 1.9535177
1.4798081 0.37208769 1.7211853
0.3182382 0.0233959 -0.15418009
1.3753843 0.32086369 1.8144672
3.2611842 0.86451048 0.1930189
3.2731783 0.87158352 0.1883093
2.0902925 0.54451311 1.2122161
1.3749638 0.2982671 1.8361198
0.97122699 -0.50419903 2.2780178
0.2266622 -0.022296701 -0.0265448
2.7901256 0.7875883 0.62960142
0.3196404 0.021668701 -0.1522067
2.1709762 0.56535792 1.1740569
2.1746082 0.56577092 1.1755657
0.93615371 -0.45764431 2.3235767
0.87179369 0.0297096 2.3257346
2.8939967 0.85712981 0.55564088
1.0285177 0.1174652 2.1967838
3.265851 0.96748239 0.24358711
0.87132567 0.0306619 2.3393862
2.8127313 0.80309689 0.63998222
0.44953889 0.0439566 -0.1947289
0.9844746 -0.50315732 2.3581183
2.5823216 0.65898079 0.91421151
3.0226598 0.88579518 0.8248722
1.2170032 0.20625789 2.1029651
1.0054414 -0.4921526 2.370034
2.8611696 0.74020129 0.7107228
0.44946969 0.042295199 -0.197956
3.4170117 0.94350892 0.2282805
3.4242218 0.94785362 0.2406916
1.1949877 0.13585851 2.1850178
3.34727 0.95092338 0.36993021
0.452328 0.16310669 -0.54336739
0.59552181 0.19031391 -0.6036818
3.0067275 -1.2309207 1.0224382
0.54232299 0.086547799 -0.30208781
1.6042736 -0.23930261 2.3167479
1.7437272 -0.67573261 2.1209726
1.5270416 -0.32486409 2.4557023
1.7309165 -0.34103689 2.2634103
1.7877816 -0.2770738 2.2584295
2.8799138 0.86634588 0.1448006
1.9819859 -0.088041097 2.3910961
3.0380585 0.90424472 0.1498934
3.063374 0.93369508 0.1057257
3.732358 1.3511049 -0.032460202
2.6093552 -0.42034781 1.9995705
4.0215158 1.3096739 -0.65577948
4.192256 1.3679291 -0.64842409
0.3070313 0.1749685 -0.56276369
0.99866819 -0.50836712 2.3677328
0.30881721 0.040865902 -0.20319089
0.34898391 0.0191424 -0.1325049
1.7820575 -1.436929 1.6964377
1.4811751 -0.3566018 2.2791665
3.4853206 0.6745671 0.99803263
1.661762 -0.28462571 2.2773466
0.24597859 0.0168682 -0.1370637
0.4912146 0.090529203 -0.31791881
3.4714537 0.9674843 0.39270541
0.2981838 -0.0020746 -0.077220798
3.5008197 0.67937392 0.99400032
2.5887876 -0.47941509 1.9723146
4.0583487 0.96888769 0.63953322
0.86935532 0.2061213 -0.4156239
0.71583903 0.30132839 1.7552007
0.3350791 0.0101189 -0.1191525
0.53174692 0.064205602 -0.2336017
1.0071392 -1.1990815 2.0686042
0.54444468 0.090049699 -0.30818239
0.88392222 -0.65688998 2.1980634
0.83722478 -0.22642221 2.2430947
0.91325748 -0.96506268 2.1821599
0.82792211 -0.2347194 2.2388813
0.92248392 -0.98571432 2.1721609
0.91618341 -0.97651029 2.1956568
2.716217 -1.1207107 0.76571298
0.93172002 -0.99046379 2.2468801
